ply
format ascii 1.0
comment VCGLIB generated
element vertex 1822
property float x
property float y
property float z
element face 0
property list uchar int vertex_indices
end_header
-39.4092 5.03351 7.70145 
-39.4028 5.02636 7.84116 
-39.3911 4.98868 7.9662 
-39.3719 4.90671 8.0701 
-39.347 4.7911 8.15802 
-39.319 4.65768 8.23756 
-39.289 4.5122 8.31152 
-39.2574 4.35806 8.38152 
-39.2248 4.19778 8.44878 
-39.1895 4.02165 8.50872 
-39.1512 3.82744 8.56033 
-39.1081 3.60592 8.5993 
-39.0594 3.35173 8.62317 
-38.9983 3.02479 8.61318 
-38.944 2.73766 8.6223 
-38.8927 2.4681 8.64001 
-38.8432 2.20916 8.66302 
-38.793 1.94616 8.68447 
-38.7465 1.70493 8.71639 
-35.2369 -18.3459 1.60351 
-35.2586 -18.1852 1.83522 
-35.2107 -18.3974 2.05589 
-35.2063 -18.3892 2.21806 
-35.2031 -18.3744 2.38317 
-35.1977 -18.372 2.54252 
-35.1903 -18.3816 2.69639 
-35.1816 -18.3981 2.84712 
-35.1747 -18.4052 3.00204 
-35.1694 -18.4022 3.16136 
-35.16 -18.4233 3.30986 
-35.1484 -18.4574 3.4525 
-35.1185 -18.5311 3.89297 
-35.1212 -18.4818 4.07245 
-35.1082 -18.524 4.2113 
-35.1038 -18.5162 4.37219 
-35.0973 -18.5206 4.52764 
-35.0913 -18.5218 4.68446 
-35.0829 -18.5377 4.8347 
-35.0745 -18.5529 4.98518 
-35.0679 -18.5581 5.14002 
-35.0628 -18.5543 5.2987 
-35.0579 -18.5497 5.45767 
-35.0514 -18.5538 5.61272 
-35.0417 -18.5771 5.75938 
-35.0288 -18.6187 5.89804 
-35.0148 -18.6668 6.03391 
-35.0013 -18.7119 6.17104 
-34.9894 -18.7478 6.31209 
-34.9787 -18.7768 6.45614 
-34.9678 -18.8067 6.5998 
-34.9565 -18.8396 6.74208 
-34.946 -18.8671 6.88668 
-34.9371 -18.8859 7.03493 
-34.9287 -18.9013 7.18461 
-34.92 -18.9187 7.33338 
-34.9102 -18.9427 7.47931 
-34.8976 -18.9823 7.61855 
-34.8859 -19.0173 7.75971 
-34.8732 -19.0577 7.89855 
-34.8594 -19.1048 8.03458 
-34.8438 -19.1624 8.16611 
-34.8259 -19.2331 8.29217 
-34.806 -19.3156 8.41329 
-34.7832 -19.4144 8.5276 
-34.7566 -19.5354 8.63264 
-34.7252 -19.6844 8.7261 
-34.6879 -19.8673 8.80554 
-34.6452 -20.0819 8.8719 
-34.5971 -20.3272 8.92577 
-34.5448 -20.5966 8.96989 
-34.4898 -20.8821 9.00764 
-34.4328 -21.1785 9.04123 
-34.3746 -21.4825 9.07203 
-34.3159 -21.7889 9.10222 
-34.2571 -22.0957 9.1326 
-34.1985 -22.4014 9.16384 
-34.1398 -22.7076 9.19519 
-34.0806 -23.0166 9.22579 
-34.0216 -23.3244 9.25728 
-33.9635 -23.6267 9.29137 
-33.9061 -23.9246 9.3276 
-33.8483 -24.2253 9.3631 
-33.7887 -24.5366 9.39462 
-33.7271 -24.8587 9.42213 
-33.665 -25.1837 9.44888 
-33.6028 -25.5096 9.47565 
-33.5398 -25.8398 9.5011 
-33.479 -26.1572 9.53208 
-33.4183 -26.4741 9.56367 
-33.361 -26.7711 9.6036 
-33.3059 -27.0554 9.64897 
-33.2554 -27.3131 9.70531 
-33.2071 -27.5577 9.76718 
-33.1611 -27.7898 9.83429 
-33.1216 -27.9837 9.91684 
-33.0874 -28.1471 10.0117 
-33.0618 -28.2611 10.1262 
-33.0236 -28.4478 10.2122 
-33.0066 -28.5118 10.3467 
-33.0563 -28.1923 10.6322 
-39.5391 4.74242 2.64573 
-39.5293 4.71593 2.7781 
-39.5244 4.74984 3.08653 
-39.5083 4.68651 3.20022 
-39.4775 4.53631 3.27029 
-39.5002 4.82623 4.1419 
-39.4858 4.77261 4.2602 
-39.4796 4.76712 4.40243 
-35.1528 -18.3983 3.63666 
-35.142 -18.4276 3.78128 
-39.7006 4.60381 1.61302 
-39.7043 4.65717 1.78655 
-39.7146 4.75022 1.98017 
-39.707 4.7366 2.11925 
-39.6765 4.68175 2.67492 
-39.6645 4.64207 2.80059 
-39.6319 4.57495 3.34919 
-39.6364 4.63325 3.52386 
-39.6413 4.69337 3.69928 
-39.6317 4.66836 3.83199 
-39.6336 4.71068 3.99827 
-39.635 4.75046 4.16314 
-39.6213 4.7005 4.28325 
-39.6164 4.70276 4.42929 
-39.6116 4.7058 4.57565 
-39.6085 4.71866 4.72679 
-39.6062 4.73642 4.88026 
-39.6022 4.74402 5.02863 
-39.5996 4.75936 5.18072 
-39.6002 4.79404 5.34223 
-39.6006 4.82757 5.50305 
-39.5975 4.84069 5.65374 
-39.591 4.83349 5.79439 
-39.5837 4.82117 5.93248 
-39.5785 4.82159 6.07674 
-39.5774 4.84612 6.23267 
-39.5778 4.87955 6.39282 
-39.576 4.8997 6.5464 
-39.573 4.91308 6.6966 
-39.5693 4.92218 6.84464 
-39.5638 4.9207 6.98747 
-39.5575 4.91406 7.12775 
-39.5524 4.91516 7.2717 
-39.5503 4.93373 7.42398 
-39.5493 4.95862 7.57919 
-39.5461 4.97016 7.7279 
-39.5388 4.95825 7.86529 
-39.5264 4.91564 7.98796 
-39.5063 4.82803 8.08915 
-39.4795 4.70124 8.17174 
-39.4491 4.55308 8.24429 
-39.4167 4.39321 8.31145 
-39.3833 4.22718 8.37586 
-39.3492 4.05739 8.43867 
-39.3121 3.8698 8.49326 
-39.272 3.66532 8.5401 
-39.2282 3.43817 8.57651 
-39.1801 3.18635 8.6016 
-39.1185 2.85495 8.58964 
-39.0634 2.56249 8.59637 
-39.0158 2.31346 8.62381 
-38.9655 2.04882 8.64425 
-38.9147 1.7813 8.66369 
-35.417 -18.2832 1.53322 
-35.4067 -18.3097 1.67977 
-35.4105 -18.2535 1.86385 
-35.4213 -18.1564 2.06628 
-35.3789 -18.3708 2.12747 
-35.3706 -18.3858 2.27904 
-35.3678 -18.3682 2.44527 
-35.3625 -18.3655 2.60467 
-35.3558 -18.3707 2.76044 
-35.3467 -18.3905 2.9096 
-35.3398 -18.3967 3.06476 
-35.3343 -18.3956 3.22316 
-35.3258 -18.4115 3.37388 
-35.3126 -18.4549 3.5123 
-35.2848 -18.483 4.1302 
-35.2746 -18.5092 4.27605 
-35.2688 -18.5094 4.43332 
-35.2632 -18.5088 4.59088 
-35.2576 -18.5075 4.74866 
-35.25 -18.5183 4.90101 
-35.2422 -18.5306 5.05268 
-35.2358 -18.5344 5.20802 
-35.2306 -18.5315 5.36622 
-35.2254 -18.5285 5.52434 
-35.2187 -18.534 5.67871 
-35.2088 -18.5588 5.82462 
-35.1957 -18.6016 5.96264 
-35.1818 -18.6491 6.09864 
-35.1688 -18.6921 6.23657 
-35.1572 -18.7261 6.3784 
-35.1469 -18.7527 6.52337 
-35.137 -18.7773 6.66916 
-35.1267 -18.8044 6.81384 
-35.1167 -18.8294 6.95939 
-35.1074 -18.85 7.10678 
-35.0984 -18.8695 7.25461 
-35.089 -18.891 7.40149 
-35.0787 -18.9175 7.54622 
-35.065 -18.9642 7.68235 
-35.052 -19.0069 7.82016 
-35.0376 -19.0576 7.95453 
-35.0218 -19.1166 8.08543 
-35.0041 -19.1866 8.21168 
-34.9841 -19.2695 8.33253 
-34.9621 -19.3646 8.44829 
-34.9371 -19.4767 8.55696 
-34.9082 -19.6117 8.65616 
-34.8744 -19.7753 8.7435 
-34.8346 -19.9735 8.81654 
-34.7893 -20.2036 8.8765 
-34.7392 -20.4617 8.92509 
-34.6857 -20.7394 8.96581 
-34.6302 -21.0287 9.00207 
-34.5734 -21.3256 9.03554 
-34.5157 -21.6276 9.06724 
-34.4576 -21.9313 9.09861 
-34.3996 -22.2351 9.13032 
-34.3417 -22.5375 9.16294 
-34.2837 -22.841 9.1955 
-34.2249 -23.149 9.2266 
-34.1659 -23.4577 9.25778 
-34.1077 -23.7621 9.29106 
-34.0502 -24.0624 9.32639 
-33.9925 -24.3637 9.3617 
-33.9333 -24.6731 9.39406 
-33.8726 -24.9917 9.42309 
-33.8113 -25.3137 9.45112 
-33.7495 -25.6384 9.47842 
-33.6864 -25.9702 9.50329 
-33.6259 -26.2873 9.53448 
-33.5649 -26.6068 9.56509 
-33.508 -26.903 9.60539 
-33.4536 -27.1843 9.65204 
-33.4043 -27.4362 9.71076 
-33.3577 -27.6719 9.7762 
-33.3151 -27.885 9.85092 
-33.2782 -28.0646 9.93917 
-33.2475 -28.2087 10.0417 
-33.227 -28.2935 10.1678 
-33.1837 -28.5106 10.2416 
-33.1693 -28.5598 10.382 
-39.7021 4.73897 2.26642 
-39.6683 4.57046 2.32678 
-39.6676 4.59773 2.48655 
-39.6853 4.79676 3.0243 
-39.6472 4.60263 3.07202 
-39.6488 4.64355 3.23817 
-35.3178 -18.3912 3.69838 
-35.3067 -18.4219 3.84229 
-35.2817 -18.5345 3.94987 
-39.8414 4.5645 1.65335 
-39.8348 4.55685 1.79567 
-39.8516 4.68839 2.00887 
-39.839 4.64521 2.13288 
-39.8206 4.56768 2.23943 
-39.8054 4.50896 2.35558 
-39.7989 4.5021 2.49802 
-39.8072 4.58305 2.68479 
-39.7964 4.54992 2.81378 
-39.7859 4.58226 3.26681 
-39.7822 4.59206 3.41715 
-39.7801 4.61105 3.57201 
-39.774 4.66921 4.03657 
-39.77 4.67675 4.18533 
-39.7578 4.63566 4.30983 
-39.7531 4.63918 4.45646 
-39.7487 4.64469 4.604 
-39.7454 4.65635 4.7545 
-39.7422 4.6688 4.90531 
-39.738 4.67525 5.05307 
-39.7365 4.69739 5.20847 
-39.7385 4.74035 5.374 
-39.7385 4.77157 5.53363 
-39.7336 4.77353 5.67881 
-39.7261 4.76029 5.81647 
-39.7199 4.75492 5.95793 
-39.7163 4.76476 6.10674 
-39.7162 4.79518 6.2655 
-39.7172 4.83194 6.42721 
-39.7166 4.86 6.58457 
-39.7156 4.88507 6.74038 
-39.7128 4.89929 6.89082 
-39.707 4.89564 7.03254 
-39.6999 4.88473 7.17069 
-39.6937 4.87887 7.31122 
-39.6896 4.88549 7.45769 
-39.6863 4.89696 7.60641 
-39.6815 4.89981 7.75091 
-39.6734 4.88251 7.88569 
-39.6599 4.8334 8.00523 
-39.6385 4.73776 8.10259 
-39.6098 4.59928 8.17964 
-39.5768 4.43526 8.24468 
-39.5419 4.25968 8.30442 
-39.5064 4.08088 8.36284 
-39.4707 3.90086 8.42088 
-39.432 3.70325 8.47082 
-39.391 3.49194 8.51454 
-39.347 3.26309 8.55025 
-39.2995 3.01388 8.57667 
-39.2391 2.68866 8.56775 
-39.1825 2.38541 8.56954 
-39.1409 2.17121 8.61337 
-39.0886 1.89347 8.62779 
-35.585 -18.2554 1.60563 
-35.5757 -18.2759 1.7548 
-35.5694 -18.2791 1.91174 
-35.5717 -18.2318 2.09153 
-35.5326 -18.3597 2.50829 
-35.5287 -18.3489 2.67126 
-35.5222 -18.3531 2.82737 
-35.5111 -18.3842 2.97132 
-35.5054 -18.3843 3.12916 
-35.4793 -18.4359 3.5793 
-35.48 -18.3982 3.75371 
-35.4691 -18.4286 3.89766 
-35.4491 -18.5119 4.01815 
-35.4488 -18.48 4.18974 
-35.4424 -18.4838 4.34538 
-35.4347 -18.4955 4.49744 
-35.4291 -18.4949 4.65487 
-35.4237 -18.4927 4.81298 
-35.4169 -18.4989 4.96724 
-35.4094 -18.5095 5.11956 
-35.4027 -18.5152 5.27392 
-35.3967 -18.5171 5.42994 
-35.3905 -18.5194 5.58566 
-35.3832 -18.5287 5.73824 
-35.3731 -18.5545 5.88362 
-35.3606 -18.5945 6.0228 
-35.348 -18.6347 6.16185 
-35.3366 -18.6682 6.30383 
-35.3264 -18.6942 6.44896 
-35.3171 -18.7155 6.59613 
-35.3079 -18.7357 6.74368 
-35.2983 -18.759 6.88988 
-35.2884 -18.7832 7.03563 
-35.2787 -18.8068 7.18162 
-35.2688 -18.831 7.32729 
-35.2585 -18.8584 7.4716 
-35.248 -18.8864 7.61555 
-35.2316 -18.9489 7.74485 
-35.2172 -19.0001 7.87895 
-35.2009 -19.0621 8.00847 
-35.1829 -19.1337 8.13395 
-35.163 -19.2167 8.25466 
-35.141 -19.3125 8.37004 
-35.1167 -19.4209 8.48014 
-35.0894 -19.5473 8.58283 
-35.0581 -19.6969 8.67588 
-35.0218 -19.8753 8.75701 
-34.9797 -20.0881 8.82399 
-34.9322 -20.3317 8.87835 
-34.8805 -20.6002 8.92269 
-34.8262 -20.8839 8.961 
-34.7706 -21.175 8.99656 
-34.7141 -21.4709 9.03051 
-34.6571 -21.7701 9.06347 
-34.5998 -22.071 9.09608 
-34.5424 -22.3721 9.12896 
-34.4852 -22.6721 9.16266 
-34.4276 -22.9738 9.19604 
-34.3691 -23.2814 9.22734 
-34.3101 -23.5914 9.25806 
-34.2518 -23.8977 9.29065 
-34.1942 -24.1996 9.32541 
-34.1367 -24.5006 9.36089 
-34.0783 -24.8073 9.39443 
-34.0185 -25.1215 9.42527 
-33.958 -25.4401 9.45476 
-33.8966 -25.7636 9.48265 
-33.8335 -26.0972 9.50683 
-33.7732 -26.4142 9.53812 
-33.7119 -26.7369 9.5675 
-33.6552 -27.0329 9.60798 
-33.6015 -27.3114 9.6558 
-33.5532 -27.5583 9.71656 
-33.5083 -27.7853 9.78553 
-33.4699 -27.9749 9.86959 
-33.4357 -28.1395 9.96382 
-33.4088 -28.2622 10.0748 
-33.394 -28.3143 10.2138 
-33.3439 -28.5715 10.2718 
-33.3321 -28.6059 10.4179 
-39.8274 4.7661 3.06842 
-39.7787 4.50838 3.08412 
-39.7844 4.66817 3.74584 
-39.7727 4.62981 3.87183 
-35.5488 -18.3321 2.20439 
-35.5381 -18.3611 2.34951 
-35.4995 -18.385 3.28664 
-35.4918 -18.3965 3.43925 
-39.9798 4.50689 1.68463 
-39.9654 4.45224 1.80292 
-39.944 4.45209 2.38702 
-39.9352 4.43142 2.52243 
-39.941 4.49776 2.70177 
-39.9315 4.47232 2.83462 
-39.9603 4.67584 3.0828 
-39.9162 4.44471 3.11193 
-39.9206 4.50234 3.28639 
-39.9254 4.56256 3.46199 
-39.9141 4.58995 3.91128 
-39.9153 4.62879 4.07569 
-39.9074 4.61338 4.21296 
-39.8962 4.57769 4.34012 
-39.8906 4.57584 4.48404 
-39.8855 4.57706 4.62942 
-39.8813 4.58368 4.77739 
-39.8771 4.59024 4.92526 
-39.8727 4.59516 5.07223 
-39.8724 4.625 5.23139 
-39.8759 4.67714 5.40139 
-39.8765 4.71151 5.56252 
-39.8712 4.71145 5.70666 
-39.8635 4.69722 5.8438 
-39.8587 4.6994 5.98891 
-39.8566 4.71848 6.14218 
-39.857 4.75183 6.3023 
-39.8578 4.78806 6.46369 
-39.8585 4.82304 6.62435 
-39.8594 4.85981 6.78575 
-39.8572 4.87801 6.93805 
-39.851 4.87176 7.07844 
-39.8431 4.85604 7.21421 
-39.8355 4.84208 7.35078 
-39.8294 4.83653 7.49133 
-39.8236 4.83348 7.63304 
-39.8171 4.8258 7.77245 
-39.8078 4.80138 7.9038 
-39.7928 4.74319 8.019 
-39.7694 4.63581 8.11077 
-39.7386 4.48396 8.18148 
-39.703 4.30329 8.23865 
-39.6655 4.11192 8.29097 
-39.6279 3.92009 8.34328 
-39.5904 3.72876 8.39606 
-39.5505 3.52282 8.44216 
-39.5091 3.30871 8.48466 
-39.4657 3.0823 8.52163 
-39.4181 2.83156 8.54745 
-39.3616 2.52811 8.54887 
-39.3015 2.2027 8.54039 
-39.2684 2.03829 8.60761 
-35.8063 -17.9504 1.64627 
-35.7514 -18.2405 1.67244 
-35.7434 -18.2536 1.82485 
-35.7328 -18.2823 1.97009 
-35.7286 -18.2729 2.13262 
-35.7184 -18.2992 2.2789 
-35.709 -18.3207 2.42726 
-35.6963 -18.3618 2.56677 
-35.6955 -18.3325 2.73799 
-35.6721 -18.3683 3.19539 
-35.6653 -18.3744 3.35036 
-35.6581 -18.3832 3.50403 
-35.6489 -18.4038 3.6524 
-35.6437 -18.4003 3.81142 
-35.6321 -18.4349 3.95346 
-35.6201 -18.4716 4.09457 
-35.6147 -18.4698 4.25265 
-35.6122 -18.4507 4.41831 
-35.6017 -18.4786 4.56313 
-35.596 -18.4786 4.72019 
-35.5904 -18.4781 4.87742 
-35.5838 -18.4833 5.03202 
-35.576 -18.4953 5.18361 
-35.5686 -18.5052 5.33607 
-35.5617 -18.5122 5.4897 
-35.5546 -18.5206 5.6427 
-35.5463 -18.5356 5.7927 
-35.5361 -18.5624 5.93758 
-35.5246 -18.5961 6.07937 
-35.5141 -18.6245 6.22348 
-35.5052 -18.6433 6.3717 
-35.4971 -18.6575 6.52183 
-35.489 -18.6715 6.67198 
-35.4804 -18.6887 6.82073 
-35.4708 -18.7112 6.96715 
-35.4606 -18.7379 7.11172 
-35.4499 -18.7674 7.25505 
-35.4388 -18.799 7.39746 
-35.4273 -18.8333 7.53867 
-35.4163 -18.8643 7.68127 
-35.3986 -18.9353 7.80687 
-35.3825 -18.9959 7.93689 
-35.3643 -19.0699 8.06126 
-35.3441 -19.1547 8.1811 
-35.322 -19.251 8.2961 
-35.2977 -19.3601 8.40581 
-35.2711 -19.4827 8.50994 
-35.2414 -19.624 8.60634 
-35.2076 -19.7886 8.69312 
-35.169 -19.9814 8.76823 
-35.1248 -20.2073 8.82978 
-35.0756 -20.4624 8.87944 
-35.0227 -20.7388 8.92049 
-34.9678 -21.0267 8.95713 
-34.9122 -21.3187 8.99244 
-34.8563 -21.6129 9.02715 
-34.8 -21.9088 9.06153 
-34.7434 -22.2069 9.09539 
-34.6866 -22.5055 9.12936 
-34.63 -22.8035 9.16396 
-34.5728 -23.104 9.19789 
-34.5145 -23.4118 9.22917 
-34.4555 -23.7232 9.25937 
-34.3971 -24.031 9.29143 
-34.3396 -24.3336 9.32599 
-34.2825 -24.6334 9.362 
-34.2249 -24.9367 9.39701 
-34.1662 -25.2459 9.42997 
-34.1066 -25.5606 9.46107 
-34.0457 -25.8826 9.48961 
-33.9824 -26.2184 9.51297 
-33.9222 -26.5357 9.54422 
-33.8606 -26.862 9.57222 
-33.8041 -27.158 9.61271 
-33.751 -27.4337 9.66173 
-33.7036 -27.6765 9.72415 
-33.6604 -27.8949 9.79658 
-33.6269 -28.0563 9.89188 
-33.5954 -28.2058 9.99209 
-33.5725 -28.3056 10.1121 
-33.5638 -28.3222 10.265 
-33.5054 -28.6289 10.3035 
-39.9855 4.60443 2.0266 
-39.9724 4.5582 2.14905 
-39.9396 4.39398 2.21158 
-39.9199 4.5617 3.60684 
-39.923 4.61159 3.77699 
-35.6884 -18.3404 2.89232 
-35.6759 -18.3802 3.03228 
-40.1134 4.39027 1.53937 
-40.1053 4.37343 1.67702 
-40.0988 4.36642 1.81965 
-40.1156 4.49935 2.03345 
-40.0801 4.35046 2.24972 
-40.0879 4.4287 2.4353 
-40.0768 4.39443 2.56375 
-40.0834 4.46585 2.74558 
-40.0736 4.4388 2.87756 
-40.0594 4.48049 3.48032 
-40.0541 4.48075 3.62571 
-40.0567 4.52803 3.79452 
-40.0532 4.53839 3.94476 
-40.0551 4.5818 4.11138 
-40.0458 4.5577 4.24429 
-40.0351 4.52516 4.37297 
-40.028 4.51406 4.51226 
-40.0213 4.50566 4.65284 
-40.016 4.50573 4.79754 
-40.0112 4.50818 4.94335 
-40.0065 4.512 5.08975 
-40.0074 4.54873 5.25227 
-40.0122 4.60881 5.42613 
-40.014 4.65104 5.59107 
-40.01 4.65831 5.73876 
-40.0028 4.64689 5.87723 
-39.9984 4.65183 6.02363 
-39.997 4.6751 6.17889 
-39.9973 4.70828 6.33886 
-39.9976 4.74105 6.49851 
-39.999 4.7805 6.66128 
-40.0016 4.8272 6.82742 
-40 4.84928 6.98152 
-39.9936 4.84189 7.1213 
-39.9848 4.82093 7.25448 
-39.9757 4.79778 7.38658 
-39.9678 4.7819 7.52212 
-39.96 4.76598 7.65761 
-39.9514 4.74594 7.79107 
-39.9403 4.7112 7.91747 
-39.9233 4.64067 8.02678 
-39.8976 4.51852 8.11153 
-39.8647 4.35361 8.17607 
-39.8266 4.1579 8.22617 
-39.7868 3.95184 8.27158 
-39.747 3.74584 8.31728 
-39.7076 3.54239 8.36442 
-39.6669 3.33154 8.40832 
-39.6261 3.11964 8.45197 
-39.5838 2.8991 8.49182 
-39.5339 2.63369 8.51087 
-39.4843 2.36974 8.53094 
-39.4177 2.005 8.50417 
-39.3958 1.90579 8.60195 
-35.9402 -18.1246 1.62674 
-35.9166 -18.2304 1.73682 
-35.9094 -18.2392 1.89112 
-35.8976 -18.2749 2.03311 
-35.8904 -18.2831 2.18754 
-35.8607 -18.3227 2.80154 
-35.852 -18.3403 2.95143 
-35.8396 -18.3796 3.09156 
-35.8381 -18.3544 3.26052 
-35.8293 -18.3725 3.41001 
-35.8225 -18.3789 3.56467 
-35.8183 -18.3695 3.72629 
-35.8083 -18.395 3.87232 
-35.7952 -18.4383 4.01038 
-35.7817 -18.4166 4.49151 
-35.7694 -18.4557 4.63128 
-35.7629 -18.4601 4.7863 
-35.7563 -18.4651 4.94099 
-35.7491 -18.4741 5.09387 
-35.7407 -18.4898 5.24373 
-35.7327 -18.5035 5.39438 
-35.7251 -18.5145 5.54622 
-35.717 -18.5287 5.69655 
-35.7074 -18.5518 5.84297 
-35.6966 -18.582 5.98627 
-35.6862 -18.6097 6.13065 
-35.6777 -18.626 6.27987 
-35.6714 -18.6298 6.43446 
-35.6654 -18.6316 6.58985 
-35.6586 -18.6383 6.74307 
-35.6504 -18.653 6.89273 
-35.6407 -18.6767 7.03854 
-35.6298 -18.7075 7.18122 
-35.6179 -18.7439 7.32149 
-35.6055 -18.7839 7.46023 
-35.5927 -18.8255 7.59824 
-35.5806 -18.8636 7.7377 
-35.564 -18.9277 7.86614 
-35.5463 -18.9988 7.99165 
-35.5259 -19.0854 8.11061 
-35.5035 -19.1836 8.22471 
-35.4792 -19.2935 8.33397 
-35.4527 -19.4163 8.43789 
-35.4237 -19.5537 8.53578 
-35.3914 -19.7104 8.62567 
-35.3552 -19.8899 8.70622 
-35.3144 -20.0962 8.77575 
-35.2685 -20.3332 8.83268 
-35.2179 -20.5974 8.8786 
-35.1641 -20.88 8.91718 
-35.1089 -21.1709 8.95264 
-35.0535 -21.4632 8.98787 
-34.998 -21.7558 9.02336 
-34.9425 -22.0485 9.05911 
-34.8866 -22.3436 9.09425 
-34.8305 -22.6397 9.12935 
-34.7743 -22.9358 9.16479 
-34.7176 -23.2355 9.19911 
-34.6593 -23.5439 9.23023 
-34.6003 -23.8567 9.25993 
-34.542 -24.1654 9.29171 
-34.4847 -24.4676 9.32648 
-34.4282 -24.7654 9.36337 
-34.3715 -25.0647 9.40005 
-34.3139 -25.3684 9.4353 
-34.2552 -25.679 9.46812 
-34.1948 -25.9995 9.49734 
-34.1313 -26.3377 9.51981 
-34.0713 -26.6556 9.55085 
-34.0093 -26.9854 9.57751 
-33.9529 -27.2816 9.61802 
-33.9007 -27.5538 9.66842 
-33.8539 -27.7937 9.73206 
-33.8122 -28.0041 9.80772 
-33.7844 -28.1326 9.91611 
-33.7555 -28.268 10.0219 
-33.7367 -28.3443 10.1512 
-33.7344 -28.3233 10.3189 
-40.1083 4.48749 2.17338 
-40.089 4.56255 3.08545 
-40.0514 4.36917 3.13363 
-40.0517 4.40301 3.2961 
-35.885 -18.2813 2.34645 
-35.879 -18.2823 2.50396 
-35.8587 -18.3686 2.62301 
-35.791 -18.4291 4.17173 
-35.7812 -18.4534 4.31814 
-40.2859 4.50749 1.51381 
-40.2593 4.37923 1.59439 
-40.2083 4.10389 1.60004 
-40.2363 4.30498 1.84883 
-40.2508 4.42393 2.05544 
-40.244 4.41538 2.19702 
-40.2188 4.35956 2.60616 
-40.229 4.45274 2.79889 
-40.2186 4.422 2.92894 
-40.2131 4.42128 3.07408 
-40.1841 4.31009 3.30908 
-40.19 4.37736 3.48815 
-40.1887 4.40173 3.64558 
-40.1914 4.4498 3.81474 
-40.1918 4.48396 3.97683 
-40.1863 4.51441 4.28179 
-40.1768 4.48895 4.41394 
-40.1682 4.46915 4.54887 
-40.1596 4.44916 4.68366 
-40.153 4.44065 4.82408 
-40.1475 4.43929 4.96797 
-40.1427 4.44249 5.11403 
-40.1441 4.48217 5.27796 
-40.1492 4.54454 5.45288 
-40.1523 4.59453 5.62157 
-40.1505 4.61536 5.77586 
-40.1443 4.60937 5.91693 
-40.1392 4.61072 6.06152 
-40.1375 4.63168 6.21559 
-40.1372 4.66116 6.3737 
-40.1364 4.68773 6.53028 
-40.138 4.72898 6.69386 
-40.1419 4.78351 6.86373 
-40.1412 4.81051 7.02015 
-40.1351 4.80517 7.16087 
-40.1256 4.7798 7.29187 
-40.1149 4.74693 7.41924 
-40.1057 4.72314 7.55095 
-40.0961 4.69654 7.68127 
-40.0851 4.66228 7.80791 
-40.0717 4.61293 7.92731 
-40.0519 4.52592 8.02877 
-40.0233 4.38616 8.10517 
-39.9885 4.20928 8.16407 
-39.9486 4.00176 8.20864 
-39.9069 3.78326 8.24825 
-39.8647 3.56254 8.28707 
-39.8236 3.34796 8.32906 
-39.7833 3.13805 8.37352 
-39.744 2.93495 8.42143 
-39.7035 2.72426 8.46602 
-39.6476 2.42173 8.46776 
-39.6081 2.21707 8.51575 
-39.5322 1.79503 8.46231 
-36.0881 -18.2166 1.64468 
-36.0822 -18.2175 1.80251 
-36.0753 -18.2244 1.95754 
-36.0642 -18.2562 2.10122 
-36.0573 -18.2626 2.25634 
-36.0502 -18.2707 2.41065 
-36.0263 -18.3105 2.86621 
-36.016 -18.3372 3.01191 
-36.0044 -18.3725 3.1537 
-36.0054 -18.3322 3.32932 
-35.9929 -18.3724 3.46883 
-35.9859 -18.3798 3.62294 
-35.987 -18.3391 3.79841 
-35.9732 -18.387 3.93437 
-35.9587 -18.4393 4.0684 
-35.9612 -18.3903 4.24724 
-35.9492 -18.428 4.38763 
-35.9392 -18.419 4.7055 
-35.9309 -18.4346 4.85547 
-35.9229 -18.4479 5.00639 
-35.9145 -18.4642 5.15594 
-35.9053 -18.4847 5.30361 
-35.8968 -18.5014 5.45288 
-35.8888 -18.5149 5.6035 
-35.8798 -18.5345 5.75143 
-35.8687 -18.5664 5.89393 
-35.857 -18.602 6.03483 
-35.8473 -18.6256 6.18087 
-35.8403 -18.6334 6.33372 
-35.8358 -18.6264 6.49289 
-35.8314 -18.6191 6.65209 
-35.8254 -18.6207 6.80736 
-35.8174 -18.6347 6.95724 
-35.8073 -18.6609 7.10186 
-35.7958 -18.6954 7.24286 
-35.7832 -18.736 7.38127 
-35.7699 -18.7815 7.51756 
-35.7563 -18.8282 7.6533 
-35.7426 -18.8756 7.78877 
-35.7286 -18.9253 7.92325 
-35.709 -19.0077 8.04385 
-35.6864 -19.1074 8.1572 
-35.6618 -19.2192 8.2655 
-35.6353 -19.3427 8.369 
-35.6065 -19.4796 8.46698 
-35.5749 -19.6324 8.55835 
-35.54 -19.8053 8.64151 
-35.5015 -19.9994 8.71594 
-35.4588 -20.2178 8.78046 
-35.4115 -20.4639 8.83367 
-35.3599 -20.7348 8.87684 
-35.3056 -21.0217 8.91368 
-35.2503 -21.3148 8.94833 
-35.195 -21.6074 8.98349 
-35.14 -21.8986 9.01962 
-35.0851 -22.1886 9.05659 
-35.0299 -22.4807 9.09303 
-34.9744 -22.774 9.12935 
-34.9188 -23.0682 9.16563 
-34.8624 -23.3675 9.2002 
-34.8042 -23.6766 9.2311 
-34.7452 -23.9905 9.26042 
-34.6871 -24.2991 9.29226 
-34.6303 -24.5998 9.32772 
-34.5745 -24.8948 9.36585 
-34.5187 -25.1899 9.40429 
-34.4623 -25.4879 9.44188 
-34.4045 -25.7945 9.47638 
-34.3445 -26.1135 9.50625 
-34.2809 -26.454 9.52784 
-34.2209 -26.7729 9.55855 
-34.1587 -27.1053 9.58422 
-34.1026 -27.4012 9.62492 
-34.0512 -27.6691 9.6771 
-34.0049 -27.9078 9.74125 
-33.9644 -28.1114 9.81964 
-33.9431 -28.2029 9.94274 
-33.9162 -28.3265 10.0532 
-33.9014 -28.3795 10.1916 
-33.9057 -28.32 10.3745 
-40.2352 4.39443 2.33225 
-40.2343 4.42083 2.49143 
-40.1851 4.28427 3.15065 
-40.1945 4.53213 4.14576 
-36.0482 -18.2483 2.57867 
-36.025 -18.3526 2.68949 
-35.9504 -18.3864 4.56295 
-40.3897 4.27959 1.60381 
-40.3849 4.34679 2.07626 
-40.3746 4.31672 2.20689 
-40.3838 4.40453 2.39725 
-40.3731 4.37194 2.52647 
-40.356 4.30038 2.63596 
-40.3156 4.2164 3.32137 
-40.3188 4.268 3.49257 
-40.3233 4.32708 3.66735 
-40.3261 4.37577 3.83678 
-40.3285 4.42241 4.00504 
-40.3315 4.4724 4.17482 
-40.3267 4.47507 4.32095 
-40.3197 4.46479 4.46058 
-40.3105 4.4406 4.59326 
-40.3004 4.4118 4.72364 
-40.2923 4.3948 4.85981 
-40.2861 4.38905 5.00148 
-40.2813 4.39206 5.14741 
-40.2826 4.43137 5.31109 
-40.2872 4.49047 5.48435 
-40.2911 4.54598 5.65569 
-40.2922 4.58394 5.81828 
-40.2874 4.58672 5.96358 
-40.2811 4.58021 6.10427 
-40.278 4.59299 6.25429 
-40.2762 4.61394 6.40819 
-40.2735 4.62935 6.5593 
-40.2745 4.6668 6.72098 
-40.2788 4.72405 6.89212 
-40.2788 4.75517 7.05048 
-40.2734 4.75419 7.19325 
-40.2635 4.72604 7.32288 
-40.2514 4.68446 7.44602 
-40.2413 4.65505 7.575 
-40.2303 4.62072 7.7016 
-40.217 4.57215 7.82137 
-40.2006 4.50447 7.93202 
-40.1774 4.39625 8.02338 
-40.1454 4.23534 8.08977 
-40.1085 4.04547 8.14258 
-40.0673 3.82892 8.18295 
-40.0243 3.60218 8.21876 
-39.9805 3.37091 8.2527 
-39.9387 3.15108 8.29233 
-39.9 2.95044 8.34127 
-39.8636 2.7633 8.3968 
-39.8255 2.56636 8.44794 
-39.7586 2.19649 8.41822 
-39.7324 2.07089 8.50336 
-36.2491 -18.2604 1.52609 
-36.2447 -18.2521 1.6881 
-36.2457 -18.212 1.86453 
-36.2387 -18.2193 2.01926 
-36.2295 -18.2397 2.168 
-36.2155 -18.2203 2.65029 
-36.1934 -18.3183 2.76389 
-36.1913 -18.2967 2.93125 
-36.1803 -18.3282 3.0747 
-36.1689 -18.3616 3.21728 
-36.1728 -18.3042 3.4004 
-36.1551 -18.3755 3.52593 
-36.1476 -18.3862 3.67851 
-36.1289 -18.3614 4.31805 
-36.1163 -18.4022 4.45696 
-36.1157 -18.3719 4.6272 
-36.1087 -18.3796 4.78056 
-36.0985 -18.4062 4.92559 
-36.0894 -18.4264 5.07339 
-36.0796 -18.4505 5.21941 
-36.0696 -18.4765 5.36458 
-36.0605 -18.4966 5.51229 
-36.0522 -18.5123 5.66182 
-36.0426 -18.5351 5.80826 
-36.0308 -18.5718 5.9486 
-36.0187 -18.6099 6.08833 
-36.0094 -18.6311 6.23531 
-36.0032 -18.6346 6.38994 
-35.9994 -18.6233 6.55086 
-35.9954 -18.6133 6.71112 
-35.9893 -18.6154 6.86608 
-35.9808 -18.6328 7.01445 
-35.97 -18.6631 7.1572 
-35.9583 -18.6991 7.2975 
-35.9461 -18.7379 7.43657 
-35.933 -18.7819 7.57338 
-35.9194 -18.829 7.70889 
-35.9047 -18.8825 7.84167 
-35.8911 -18.9298 7.9771 
-35.8695 -19.0244 8.09247 
-35.8448 -19.1376 8.20008 
-35.8179 -19.2633 8.30248 
-35.7891 -19.4007 8.40008 
-35.758 -19.552 8.49196 
-35.7238 -19.721 8.57656 
-35.6862 -19.9103 8.65285 
-35.6454 -20.1187 8.72132 
-35.6011 -20.3479 8.78137 
-35.5527 -20.6011 8.83169 
-35.5006 -20.8767 8.87297 
-35.446 -21.1665 8.90871 
-35.3906 -21.4609 8.94286 
-35.3355 -21.7539 8.97797 
-35.2808 -22.0441 9.01457 
-35.2265 -22.3318 9.05255 
-35.172 -22.6211 9.09024 
-35.1173 -22.9113 9.12787 
-35.0622 -23.2036 9.16504 
-35.006 -23.5024 9.19983 
-34.9479 -23.8121 9.23057 
-34.8891 -24.1265 9.25978 
-34.8313 -24.4342 9.29209 
-34.7752 -24.7322 9.32869 
-34.7202 -25.0235 9.36835 
-34.6653 -25.3145 9.40851 
-34.61 -25.6072 9.44835 
-34.553 -25.9102 9.48434 
-34.4935 -26.228 9.51474 
-34.4297 -26.5706 9.53557 
-34.3698 -26.8908 9.56581 
-34.3076 -27.2239 9.59124 
-34.252 -27.5185 9.63251 
-34.2017 -27.7808 9.68697 
-34.1553 -28.0208 9.75067 
-34.1158 -28.2197 9.83092 
-34.1014 -28.2708 9.97004 
-34.0761 -28.3858 10.0839 
-40.3707 4.22852 1.87005 
-40.369 4.41113 2.83749 
-40.358 4.37651 2.96555 
-40.3338 4.26245 3.05361 
-40.3233 4.23082 3.18319 
-36.2247 -18.2345 2.32829 
-36.214 -18.2639 2.47284 
-36.1517 -18.3273 3.86195 
-36.1358 -18.388 3.99213 
-36.1212 -18.4415 4.12554 
-40.4919 3.99898 1.52144 
-40.5087 4.1659 1.89893 
-40.5168 4.24741 2.08638 
-40.5227 4.34727 2.42868 
-40.5058 4.27678 2.53868 
-40.49 4.21358 2.6524 
-40.5014 4.31466 2.84901 
-40.4588 4.1206 3.04233 
-40.476 4.25675 3.25615 
-40.4497 4.12926 3.33757 
-40.4506 4.16733 3.50195 
-40.4594 4.25264 3.68981 
-40.4616 4.29795 3.85751 
-40.4646 4.34829 4.02757 
-40.4674 4.39724 4.1968 
-40.4671 4.42735 4.35652 
-40.4642 4.44124 4.50808 
-40.4556 4.42153 4.64292 
-40.4455 4.39226 4.77299 
-40.4373 4.37423 4.90859 
-40.4309 4.36735 5.04963 
-40.4264 4.37184 5.19621 
-40.4271 4.40765 5.35809 
-40.4302 4.45813 5.52704 
-40.434 4.51324 5.69811 
-40.4372 4.56399 5.86688 
-40.4337 4.57476 6.016 
-40.426 4.56002 6.1526 
-40.4215 4.56427 6.2984 
-40.4183 4.57649 6.44799 
-40.4134 4.5785 6.59253 
-40.4126 4.60539 6.74905 
-40.416 4.65733 6.91756 
-40.4161 4.68965 7.07646 
-40.4115 4.69306 7.22131 
-40.4013 4.66275 7.34986 
-40.3878 4.6132 7.46915 
-40.3767 4.57724 7.59496 
-40.3644 4.53474 7.71763 
-40.3488 4.47188 7.83056 
-40.3291 4.38474 7.93193 
-40.3021 4.25289 8.01208 
-40.2665 4.06942 8.0678 
-40.2274 3.8655 8.11402 
-40.1856 3.64498 8.15262 
-40.1428 3.41793 8.18839 
-40.099 3.18547 8.22188 
-40.058 2.97007 8.26371 
-40.0224 2.78692 8.32099 
-39.9895 2.62044 8.38632 
-39.9541 2.43868 8.44466 
-39.8706 1.96759 8.3676 
-36.4109 -18.2737 1.58024 
-36.4081 -18.2557 1.74658 
-36.4101 -18.2095 1.92565 
-36.403 -18.2175 2.07998 
-36.3964 -18.2227 2.2355 
-36.393 -18.2084 2.39982 
-36.3802 -18.251 2.53833 
-36.3588 -18.2759 2.99996 
-36.3476 -18.3086 3.14274 
-36.3363 -18.3419 3.28526 
-36.3154 -18.33 3.91953 
-36.3001 -18.3874 4.05108 
-36.2876 -18.428 4.19009 
-36.2972 -18.3366 4.38751 
-36.2846 -18.3774 4.5263 
-36.2804 -18.3682 4.68712 
-36.2774 -18.3524 4.85077 
-36.2675 -18.3776 4.99626 
-36.258 -18.4 5.14301 
-36.2477 -18.4278 5.28729 
-36.2371 -18.4568 5.43103 
-36.2276 -18.4797 5.5774 
-36.2189 -18.4978 5.72583 
-36.2092 -18.5216 5.87171 
-36.1976 -18.5572 6.01242 
-36.186 -18.5927 6.15319 
-36.177 -18.6124 6.30072 
-36.1707 -18.6158 6.45526 
-36.1664 -18.6074 6.61482 
-36.1618 -18.6016 6.77321 
-36.1549 -18.6086 6.92595 
-36.1455 -18.6311 7.07199 
-36.1342 -18.6648 7.21323 
-36.1226 -18.6997 7.35389 
-36.1113 -18.7337 7.49494 
-36.0991 -18.7728 7.63374 
-36.0857 -18.8186 7.76973 
-36.0702 -18.8776 7.90009 
-36.0549 -18.935 8.03114 
-36.0312 -19.0423 8.14105 
-36.0043 -19.1692 8.24282 
-35.9752 -19.309 8.33923 
-35.9441 -19.4606 8.43085 
-35.9106 -19.6266 8.51653 
-35.8738 -19.8119 8.59429 
-35.8336 -20.0176 8.6637 
-35.7906 -20.2399 8.72645 
-35.7448 -20.4787 8.78252 
-35.6957 -20.7375 8.83055 
-35.6432 -21.0163 8.8706 
-35.5885 -21.3077 8.90572 
-35.5332 -21.6029 8.93961 
-35.4783 -21.896 8.97475 
-35.4239 -22.1856 9.0117 
-35.3701 -22.4716 9.05044 
-35.3162 -22.7582 9.0893 
-35.2622 -23.0453 9.12831 
-35.2077 -23.3352 9.16646 
-35.1518 -23.6335 9.20156 
-35.0939 -23.9433 9.23232 
-35.0354 -24.2573 9.26178 
-34.9782 -24.563 9.29494 
-34.9229 -24.8576 9.33301 
-34.8687 -25.1448 9.37438 
-34.8146 -25.432 9.41612 
-34.7604 -25.7198 9.45799 
-34.7041 -26.02 9.49518 
-34.6449 -26.3369 9.52598 
-34.5812 -26.6809 9.54633 
-34.5212 -27.0028 9.57593 
-34.4595 -27.334 9.60219 
-34.4045 -27.6259 9.64455 
-34.3557 -27.8811 9.70189 
-34.3087 -28.1254 9.76388 
-34.2697 -28.3225 9.84487 
-34.2625 -28.3306 10.0011 
-40.5043 4.20327 2.20987 
-40.493 4.29568 2.98493 
-36.3832 -18.1981 2.7198 
-36.3647 -18.2749 2.84283 
-36.342 -18.2737 3.47309 
-36.3202 -18.3697 3.58748 
-36.313 -18.3787 3.74071 
-40.6986 4.39388 1.92936 
-40.6495 4.12666 1.93923 
-40.6473 4.14569 2.09486 
-40.6398 4.13189 2.23374 
-40.6328 4.15418 2.53657 
-40.6263 4.17915 2.8404 
-40.6259 4.20928 3.00106 
-40.5868 4.00332 3.04296 
-40.5943 4.17762 3.71153 
-40.5962 4.22129 3.87837 
-40.5992 4.27156 4.04835 
-40.6014 4.31719 4.21588 
-40.6044 4.36748 4.38559 
-40.6051 4.40355 4.54809 
-40.5982 4.39354 4.68768 
-40.5895 4.37306 4.82204 
-40.583 4.36535 4.96265 
-40.5773 4.36273 5.10572 
-40.5731 4.36865 5.25291 
-40.5726 4.39776 5.41141 
-40.5737 4.43661 5.57456 
-40.5764 4.48478 5.74214 
-40.5801 4.53858 5.91233 
-40.5772 4.55331 6.06331 
-40.569 4.53475 6.19799 
-40.564 4.53627 6.34239 
-40.5601 4.54462 6.49003 
-40.5534 4.53558 6.62916 
-40.55 4.54678 6.77802 
-40.551 4.58451 6.93962 
-40.5506 4.61343 7.09683 
-40.5461 4.61781 7.24212 
-40.535 4.58235 7.36817 
-40.52 4.52249 7.4825 
-40.507 4.47521 7.60288 
-40.4929 4.4213 7.72009 
-40.475 4.34493 7.82659 
-40.4527 4.24116 7.92007 
-40.4223 4.08825 7.99023 
-40.3837 3.88601 8.03712 
-40.3428 3.67029 8.07785 
-40.3019 3.45397 8.11855 
-40.2608 3.23698 8.1592 
-40.219 3.01538 8.19794 
-40.1808 2.81626 8.24754 
-40.1495 2.65857 8.31688 
-40.1207 2.51575 8.39338 
-40.0877 2.348 8.45833 
-36.5687 -18.3031 1.62657 
-36.571 -18.2546 1.80674 
-36.5719 -18.2146 1.98286 
-36.5604 -18.2146 2.29853 
-36.5583 -18.1931 2.46596 
-36.5448 -18.2399 2.60248 
-36.5458 -18.1993 2.77835 
-36.5323 -18.2456 2.91498 
-36.5241 -18.2606 3.06569 
-36.5136 -18.2892 3.21026 
-36.503 -18.3185 3.35444 
-36.4799 -18.3546 3.8099 
-36.4775 -18.3347 3.97576 
-36.4643 -18.3799 4.11268 
-36.4543 -18.4052 4.25839 
-36.4628 -18.3198 4.45297 
-36.4504 -18.3604 4.59178 
-36.4423 -18.3745 4.7422 
-36.4416 -18.3446 4.91193 
-36.4336 -18.3585 5.06233 
-36.4244 -18.3794 5.20961 
-36.4142 -18.4067 5.35403 
-36.4037 -18.4353 5.49782 
-36.394 -18.4594 5.64358 
-36.385 -18.4793 5.79111 
-36.3754 -18.5029 5.93699 
-36.3645 -18.5345 6.07934 
-36.3538 -18.5647 6.22229 
-36.345 -18.5833 6.37018 
-36.3382 -18.5899 6.52325 
-36.3327 -18.589 6.67944 
-36.3268 -18.5905 6.83455 
-36.319 -18.6028 6.98495 
-36.3092 -18.628 7.12975 
-36.298 -18.6609 7.27119 
-36.2871 -18.6926 7.41314 
-36.2763 -18.7231 7.5556 
-36.2645 -18.76 7.69528 
-36.2509 -18.8075 7.83041 
-36.234 -18.8751 7.95703 
-36.2159 -18.9495 8.08079 
-36.1901 -19.0701 8.18506 
-36.1609 -19.2108 8.28094 
-36.1295 -19.3649 8.37131 
-36.0962 -19.5305 8.457 
-36.0604 -19.711 8.53661 
-36.0211 -19.9121 8.60774 
-35.9784 -20.1337 8.67055 
-35.9334 -20.3689 8.72793 
-35.8863 -20.6165 8.78041 
-35.8366 -20.88 8.82656 
-35.7839 -21.1609 8.86578 
-35.7293 -21.4531 8.90063 
-35.6742 -21.7485 8.93454 
-35.6194 -22.0414 8.96986 
-35.5654 -22.3303 9.00713 
-35.512 -22.6151 9.04645 
-35.4587 -22.8994 9.08632 
-35.4054 -23.1834 9.12668 
-35.3515 -23.471 9.16587 
-35.2959 -23.7685 9.20136 
-35.2383 -24.0778 9.23237 
-35.1802 -24.3905 9.26242 
-35.1237 -24.6935 9.29677 
-35.0692 -24.9841 9.33648 
-35.016 -25.2671 9.37964 
-34.9626 -25.5512 9.42273 
-34.9093 -25.8346 9.46637 
-34.8535 -26.1329 9.5044 
-34.7947 -26.4492 9.53551 
-34.7312 -26.7931 9.55592 
-34.671 -27.1175 9.58459 
-34.6105 -27.4433 9.61305 
-34.5563 -27.7314 9.65701 
-34.5091 -27.9779 9.71785 
-34.461 -28.2303 9.77665 
-34.4218 -28.4287 9.85716 
-34.4222 -28.3918 10.0312 
-40.6505 4.22966 2.42907 
-40.6175 4.09357 2.65163 
-40.64 4.35943 3.36712 
-40.5852 4.05754 3.36103 
-40.5842 4.08366 3.5194 
-36.5653 -18.2202 2.1382 
-36.5078 -18.2558 3.53971 
-36.4862 -18.3508 3.65444 
-40.7884 4.01074 1.64839 
-40.7538 3.83155 1.70325 
-40.7857 4.05944 1.96531 
-40.7745 4.02354 2.09301 
-40.7803 4.09097 2.27307 
-40.7648 4.02881 2.38737 
-40.7563 4.00903 2.52311 
-40.7433 3.96187 2.645 
-40.7258 4.01694 3.40009 
-40.725 4.04435 3.55904 
-40.7339 4.13124 3.74756 
-40.7361 4.17671 3.91523 
-40.7377 4.21905 4.08121 
-40.7386 4.25645 4.24459 
-40.7424 4.31164 4.41667 
-40.7444 4.35644 4.58344 
-40.7385 4.35251 4.72599 
-40.7318 4.34332 4.86586 
-40.7284 4.3547 5.01583 
-40.7246 4.36331 5.16434 
-40.7206 4.37126 5.31244 
-40.7191 4.39393 5.46768 
-40.7187 4.42343 5.62616 
-40.72 4.46336 5.78963 
-40.7229 4.51334 5.95786 
-40.7203 4.52884 6.10914 
-40.712 4.51046 6.24385 
-40.7071 4.51219 6.38828 
-40.7028 4.51792 6.53457 
-40.6947 4.50056 6.66961 
-40.6887 4.49578 6.81069 
-40.6867 4.51514 6.96335 
-40.6848 4.53544 7.11637 
-40.6795 4.53485 7.25924 
-40.667 4.49015 7.38084 
-40.6496 4.41647 7.48854 
-40.6338 4.35148 7.60044 
-40.6171 4.28185 7.71016 
-40.5975 4.19394 7.81118 
-40.5734 4.0795 7.89963 
-40.5409 3.91306 7.96344 
-40.501 3.70213 8.00629 
-40.4598 3.48376 8.04587 
-40.4217 3.28366 8.09437 
-40.3844 3.08867 8.14552 
-40.3465 2.88983 8.19508 
-40.3126 2.71593 8.25663 
-40.2859 2.58555 8.33885 
-40.2607 2.46421 8.42544 
-40.2294 2.30566 8.49471 
-36.7397 -18.2877 1.53525 
-36.7223 -18.3583 1.6612 
-36.7352 -18.2458 1.87036 
-36.7344 -18.2156 2.04194 
-36.7291 -18.213 2.20088 
-36.7248 -18.2046 2.36241 
-36.6982 -18.2263 2.98264 
-36.6893 -18.2457 3.13125 
-36.6803 -18.2657 3.27956 
-36.6713 -18.2856 3.42784 
-36.6737 -18.2361 3.60707 
-36.6558 -18.31 3.73116 
-36.6496 -18.3131 3.88673 
-36.6433 -18.3165 4.04218 
-36.6325 -18.3471 4.18543 
-36.6247 -18.3599 4.33656 
-36.6069 -18.3298 4.9762 
-36.6 -18.3369 5.12948 
-36.5913 -18.3553 5.27774 
-36.5815 -18.3802 5.42308 
-36.5714 -18.4068 5.56767 
-36.5617 -18.4311 5.71321 
-36.5524 -18.4527 5.85989 
-36.5429 -18.4759 6.0058 
-36.5326 -18.5035 6.14979 
-36.5227 -18.529 6.29468 
-36.514 -18.5474 6.44255 
-36.5064 -18.559 6.59332 
-36.4994 -18.5671 6.74555 
-36.4923 -18.5754 6.8976 
-36.4842 -18.5902 7.04681 
-36.4746 -18.614 7.19213 
-36.4643 -18.6423 7.33546 
-36.454 -18.67 7.47902 
-36.4433 -18.7003 7.62143 
-36.4311 -18.7397 7.75993 
-36.4164 -18.7939 7.89214 
-36.3976 -18.873 8.01379 
-36.3758 -18.9706 8.12764 
-36.3478 -19.1049 8.22607 
-36.3164 -19.2597 8.31598 
-36.2827 -19.4282 8.40028 
-36.2472 -19.6075 8.48019 
-36.2092 -19.8016 8.55409 
-36.1676 -20.0174 8.61912 
-36.1227 -20.2534 8.67591 
-36.0759 -20.5003 8.72844 
-36.0277 -20.7556 8.77776 
-35.9774 -21.0233 8.82225 
-35.9247 -21.3058 8.86087 
-35.8702 -21.5984 8.89567 
-35.8154 -21.8932 8.92986 
-35.761 -22.1853 8.96558 
-35.7072 -22.4736 9.00321 
-35.6542 -22.7576 9.04294 
-35.6013 -23.0401 9.08361 
-35.5487 -23.3212 9.12519 
-35.4954 -23.6066 9.16536 
-35.4402 -23.9032 9.2013 
-35.383 -24.2114 9.23283 
-35.3255 -24.5219 9.26384 
-35.2697 -24.8215 9.29961 
-35.2161 -25.1082 9.34103 
-35.1638 -25.3871 9.3859 
-35.111 -25.6688 9.42998 
-35.0584 -25.9488 9.47505 
-35.003 -26.2459 9.51359 
-34.9445 -26.5615 9.54506 
-34.8817 -26.9032 9.56642 
-34.821 -27.2312 9.59367 
-34.7623 -27.5478 9.6259 
-34.7092 -27.831 9.67184 
-34.6638 -28.0675 9.73669 
-34.6138 -28.3321 9.79066 
-34.5741 -28.5347 9.86951 
-40.7478 4.02203 2.82096 
-40.757 4.11068 3.01107 
-40.7218 3.92784 3.06464 
-40.646 3.49689 2.994 
-36.7232 -18.1791 2.53151 
-36.71 -18.2244 2.66862 
-36.7071 -18.2071 2.83388 
-36.6283 -18.304 4.51798 
-36.6172 -18.3362 4.66037 
-36.6063 -18.3679 4.80296 
-40.8813 3.86831 2.51224 
-40.8768 3.87342 2.66052 
-40.8719 3.8758 2.80735 
-40.8848 3.98768 3.00915 
-40.8669 3.90994 3.11552 
-40.8801 4.02343 3.31778 
-40.8713 4.00187 3.45222 
-40.8728 4.04335 3.61811 
-40.8793 4.1158 3.79932 
-40.8811 4.15908 3.96581 
-40.8799 4.18396 4.12301 
-40.8784 4.20712 4.27926 
-40.8807 4.25329 4.4468 
-40.882 4.29404 4.61152 
-40.8767 4.29361 4.75575 
-40.872 4.29667 4.90163 
-40.8726 4.33264 5.06365 
-40.8719 4.36065 5.22163 
-40.8692 4.37598 5.37327 
-40.8673 4.39681 5.52751 
-40.8659 4.42 5.6828 
-40.8658 4.45124 5.84193 
-40.8675 4.49379 6.00644 
-40.8648 4.50934 6.15767 
-40.857 4.49373 6.29365 
-40.8521 4.49583 6.43819 
-40.8471 4.49703 6.58221 
-40.8378 4.47179 6.71337 
-40.8294 4.45217 6.8472 
-40.8241 4.45182 6.9903 
-40.8201 4.45906 7.13699 
-40.8132 4.4487 7.27512 
-40.7986 4.39125 7.39059 
-40.7785 4.30074 7.49023 
-40.7591 4.21393 7.59171 
-40.7398 4.12751 7.69343 
-40.7189 4.03188 7.79083 
-40.6943 3.91293 7.8772 
-40.6612 3.74292 7.93939 
-40.6223 3.53734 7.98488 
-40.5832 3.33044 8.02999 
-40.5497 3.15784 8.09158 
-40.5176 2.99325 8.15716 
-40.4846 2.82396 8.2207 
-40.4552 2.67648 8.29469 
-40.4319 2.56624 8.38636 
-40.4089 2.45766 8.47891 
-40.378 2.30102 8.54902 
-40.4111 2.53462 8.80191 
-40.277 1.74926 8.57834 
-36.9092 -18.2504 1.61236 
-36.8725 -18.4387 1.68456 
-36.9017 -18.2263 1.93909 
-36.8986 -18.2102 2.10416 
-36.8945 -18.2005 2.26625 
-36.8905 -18.1902 2.42849 
-36.8883 -18.1685 2.59576 
-36.8766 -18.2048 2.73683 
-36.8703 -18.208 2.89274 
-36.8646 -18.2081 3.04998 
-36.8562 -18.2241 3.20001 
-36.849 -18.2336 3.35293 
-36.8418 -18.2426 3.50596 
-36.8422 -18.2052 3.67964 
-36.8283 -18.2553 3.81421 
-36.8219 -18.259 3.96944 
-36.8143 -18.271 4.12088 
-36.8 -18.2886 4.42644 
-36.7942 -18.2893 4.58273 
-36.7873 -18.2962 4.73618 
-36.7754 -18.334 4.87593 
-36.7754 -18.2996 5.04745 
-36.7682 -18.3086 5.19977 
-36.7597 -18.3257 5.34847 
-36.7503 -18.3481 5.4948 
-36.7408 -18.3715 5.64066 
-36.7313 -18.3946 5.78664 
-36.722 -18.4167 5.93296 
-36.7126 -18.4389 6.07921 
-36.7031 -18.4622 6.22493 
-36.6939 -18.4837 6.37141 
-36.685 -18.5031 6.51876 
-36.6766 -18.5199 6.66716 
-36.6683 -18.5357 6.81595 
-36.6605 -18.5487 6.96586 
-36.6523 -18.5642 7.11468 
-36.6429 -18.5866 7.26044 
-36.6329 -18.6129 7.40454 
-36.6227 -18.6409 7.54787 
-36.6113 -18.6752 7.68845 
-36.5983 -18.7198 7.82465 
-36.5825 -18.7814 7.95364 
-36.5621 -18.8704 8.07097 
-36.5355 -18.997 8.17253 
-36.5052 -19.1453 8.26499 
-36.4716 -19.3143 8.34889 
-36.4356 -19.4971 8.42712 
-36.3981 -19.6897 8.50145 
-36.3582 -19.8963 8.57011 
-36.3146 -20.1251 8.62973 
-36.2677 -20.3738 8.68124 
-36.2193 -20.631 8.72952 
-36.1702 -20.8932 8.77606 
-36.1195 -21.1645 8.81906 
-36.0667 -21.4483 8.85724 
-36.0125 -21.7407 8.89218 
-35.958 -22.0345 8.92692 
-35.9041 -22.3252 8.96325 
-35.8507 -22.6127 9.00127 
-35.7979 -22.8962 9.04127 
-35.7454 -23.1775 9.08251 
-35.6934 -23.4563 9.12513 
-35.6406 -23.7397 9.16618 
-35.5858 -24.035 9.20268 
-35.5292 -24.3414 9.23506 
-35.4723 -24.6486 9.26743 
-35.4174 -24.9443 9.30488 
-35.3647 -25.227 9.34792 
-35.3131 -25.5024 9.39427 
-35.2607 -25.783 9.43885 
-35.2088 -26.0607 9.48492 
-35.1536 -26.3574 9.52368 
-35.0956 -26.6715 9.55576 
-35.0338 -27.0079 9.5793 
-34.9725 -27.3418 9.60427 
-34.9162 -27.6452 9.6418 
-34.8641 -27.9233 9.6898 
-34.8207 -28.149 9.759 
-34.7682 -28.4296 9.80663 
-40.9187 3.96744 1.9791 
-40.9038 3.90861 2.09516 
-40.9253 4.07327 2.32447 
-40.8815 3.83714 2.3507 
-36.8059 -18.2874 4.27033 
-41.0902 4.04989 1.78967 
-41.0519 3.8786 1.9944 
-41.0424 3.8532 2.12741 
-41.0226 3.86164 2.71459 
-41.0037 3.77738 2.81774 
-41.0129 3.86692 3.00827 
-41.0127 3.89834 3.16943 
-41.0395 4.09596 3.41372 
-41.0155 3.98073 3.50117 
-41.0194 4.03713 3.67443 
-41.0242 4.09927 3.8504 
-41.0218 4.14917 4.16485 
-41.0178 4.15732 4.31358 
-41.0171 4.18544 4.47212 
-41.0164 4.21351 4.63051 
-41.0115 4.21539 4.77586 
-41.0087 4.23029 4.92755 
-41.0134 4.29181 5.10211 
-41.0172 4.34714 5.27345 
-41.017 4.37811 5.43269 
-41.0155 4.4013 5.58799 
-41.013 4.41823 5.74012 
-41.0111 4.43833 5.89371 
-41.0109 4.46952 6.05259 
-41.0079 4.48297 6.20273 
-41.0008 4.47182 6.34081 
-40.9962 4.47564 6.48611 
-40.9907 4.47366 6.62852 
-40.9807 4.44423 6.75759 
-40.9705 4.41337 6.88593 
-40.9621 4.39358 7.0196 
-40.9552 4.38349 7.15789 
-40.9461 4.35946 7.28943 
-40.929 4.28647 7.39744 
-40.9061 4.17801 7.48849 
-40.8833 4.06964 7.57969 
-40.862 3.97085 7.67555 
-40.8411 3.87492 7.77286 
-40.817 3.75914 7.86079 
-40.7858 3.59966 7.92807 
-40.7505 3.41518 7.98365 
-40.7157 3.23391 8.04097 
-40.687 3.08982 8.11607 
-40.6591 2.95072 8.19369 
-40.6301 2.80477 8.26822 
-40.6036 2.67461 8.35034 
-40.5819 2.57331 8.44615 
-40.5596 2.46898 8.54062 
-40.529 2.31337 8.61116 
-40.5331 2.37075 8.78148 
-40.4454 1.86576 8.68906 
-40.4243 1.76845 8.78737 
-40.4205 1.77701 8.93505 
-37.084 -18.2134 1.53124 
-37.0782 -18.2138 1.68895 
-37.0672 -18.2111 2.00574 
-37.062 -18.2074 2.16505 
-37.0583 -18.1954 2.32808 
-37.0547 -18.1822 2.49152 
-37.0516 -18.1664 2.65608 
-37.0419 -18.1904 2.80254 
-37.0339 -18.2043 2.95354 
-37.0303 -18.1913 3.11659 
-37.0226 -18.204 3.26801 
-37.0169 -18.2039 3.42509 
-37.0114 -18.2025 3.58265 
-36.9986 -18.211 3.89253 
-36.9932 -18.2093 4.05002 
-36.986 -18.2181 4.20276 
-36.9796 -18.2227 4.3573 
-36.9578 -18.2514 4.81391 
-36.9458 -18.2895 4.95344 
-36.9421 -18.278 5.11477 
-36.9351 -18.2858 5.26751 
-36.9266 -18.3031 5.416 
-36.9178 -18.3221 5.56372 
-36.9092 -18.3401 5.71183 
-36.9003 -18.3592 5.8594 
-36.8912 -18.3801 6.00615 
-36.8821 -18.4013 6.15272 
-36.873 -18.4223 6.29934 
-36.8641 -18.4418 6.44657 
-36.8552 -18.4618 6.59352 
-36.8462 -18.482 6.74032 
-36.8372 -18.5022 6.88709 
-36.829 -18.5177 7.03582 
-36.8207 -18.5339 7.18421 
-36.811 -18.5585 7.32897 
-36.8003 -18.589 7.47112 
-36.789 -18.6235 7.61157 
-36.7765 -18.665 7.74901 
-36.7626 -18.7152 7.88275 
-36.746 -18.7817 8.00955 
-36.7246 -18.877 8.12416 
-36.6933 -19.0327 8.21332 
-36.6608 -19.1951 8.29982 
-36.625 -19.3782 8.37772 
-36.5868 -19.5753 8.44995 
-36.5472 -19.7808 8.51888 
-36.5056 -19.9989 8.58274 
-36.4603 -20.2387 8.63778 
-36.4118 -20.4981 8.68489 
-36.3622 -20.764 8.72961 
-36.3123 -21.032 8.77377 
-36.2612 -21.3067 8.81544 
-36.2085 -21.5915 8.85329 
-36.1546 -21.8833 8.88855 
-36.1006 -22.1754 8.92405 
-36.0471 -22.4644 8.96115 
-35.994 -22.751 8.99959 
-35.9415 -23.0344 9.03974 
-35.8893 -23.315 9.08134 
-35.8378 -23.5917 9.12486 
-35.7856 -23.8731 9.16677 
-35.7312 -24.1667 9.20407 
-35.6753 -24.4701 9.2377 
-35.6194 -24.7732 9.27185 
-35.5654 -25.0645 9.31113 
-35.5134 -25.3439 9.35557 
-35.4625 -25.6167 9.403 
-35.4102 -25.8977 9.44748 
-35.3586 -26.1742 9.49407 
-35.3037 -26.471 9.53285 
-35.2462 -26.7827 9.56596 
-35.1862 -27.1099 9.59325 
-35.1236 -27.4528 9.61463 
-35.0703 -27.7396 9.65887 
-35.0191 -28.0134 9.70862 
-34.9777 -28.2278 9.78232 
-41.0689 4.04926 2.37253 
-41.0163 3.75739 2.37058 
-41.0133 3.77131 2.52338 
-41.0256 4.1404 4.01574 
-37.0098 -18.1775 3.75068 
-36.9748 -18.2174 4.51613 
-36.9608 -18.2674 4.65048 
-41.2442 4.05716 1.70808 
-41.1988 3.8084 1.72729 
-41.2414 4.10561 2.0244 
-41.1838 3.78127 2.00544 
-41.1867 3.83205 2.17706 
-41.2022 3.9611 2.38814 
-41.1633 3.75264 2.4284 
-41.1546 3.86221 3.21106 
-41.1484 3.85647 3.35343 
-41.1561 3.93672 3.53871 
-41.1607 3.99807 3.71438 
-41.165 4.05752 3.88893 
-41.1668 4.10092 4.05533 
-41.1625 4.10692 4.203 
-41.1577 4.10969 4.34901 
-41.1547 4.12389 4.50059 
-41.1521 4.1403 4.65318 
-41.1477 4.14549 4.80013 
-41.1465 4.17056 4.9568 
-41.1542 4.25053 5.14037 
-41.1622 4.33243 5.3247 
-41.1649 4.38146 5.4927 
-41.1635 4.40505 5.6481 
-41.1599 4.41456 5.79651 
-41.1563 4.42486 5.94522 
-41.1542 4.44415 6.09823 
-41.1503 4.45214 6.24564 
-41.1435 4.44239 6.38434 
-41.1388 4.44571 6.52933 
-41.1332 4.44312 6.67138 
-41.1238 4.41743 6.80219 
-41.113 4.38252 6.92853 
-41.1019 4.34651 7.05431 
-41.0919 4.31667 7.18305 
-41.0803 4.27722 7.30716 
-41.0609 4.18992 7.40829 
-41.0359 4.0677 7.49277 
-41.011 3.94658 7.57789 
-40.9894 3.84549 7.67269 
-40.97 3.75772 7.77392 
-40.9473 3.64999 7.86572 
-40.9195 3.51101 7.94277 
-40.8886 3.3531 8.01098 
-40.859 3.20262 8.08288 
-40.8335 3.07754 8.16696 
-40.8074 2.94912 8.24957 
-40.7798 2.81171 8.32808 
-40.7541 2.68518 8.41184 
-40.7325 2.58486 8.50804 
-40.7107 2.48264 8.60343 
-40.6818 2.33672 8.67845 
-40.6664 2.27421 8.79261 
-40.5936 1.85862 8.74202 
-40.5933 1.88905 8.89979 
-40.6044 1.98922 9.0899 
-37.2532 -18.1748 1.60886 
-37.246 -18.1838 1.76251 
-37.263 -18.0449 1.98335 
-37.2322 -18.1982 2.07132 
-37.2264 -18.1985 2.2287 
-37.2226 -18.187 2.39138 
-37.2197 -18.17 2.55644 
-37.2161 -18.1568 2.7197 
-37.2082 -18.1701 2.87095 
-37.2004 -18.1829 3.02235 
-37.1982 -18.1617 3.18889 
-37.1897 -18.1789 3.33822 
-37.1856 -18.1688 3.49962 
-37.1818 -18.1573 3.6616 
-37.1771 -18.1511 3.82109 
-37.1683 -18.1703 3.9692 
-37.1645 -18.1583 4.13117 
-37.1581 -18.1627 4.28571 
-37.1527 -18.1609 4.44295 
-37.1476 -18.1575 4.6008 
-37.1312 -18.2233 4.72807 
-37.1282 -18.2065 4.89173 
-37.1168 -18.2414 5.03254 
-37.1089 -18.2553 5.18255 
-37.102 -18.2626 5.33541 
-37.0932 -18.2819 5.48292 
-37.0848 -18.2984 5.63163 
-37.0771 -18.3112 5.78189 
-37.069 -18.3257 5.93138 
-37.0603 -18.3442 6.07903 
-37.0514 -18.3645 6.22589 
-37.0423 -18.3853 6.37248 
-37.0334 -18.4052 6.51938 
-37.0243 -18.4259 6.66594 
-37.0151 -18.4475 6.812 
-37.0059 -18.4695 6.95788 
-36.9973 -18.4872 7.10556 
-36.9886 -18.5061 7.25269 
-36.9782 -18.5353 7.39536 
-36.9662 -18.5736 7.53409 
-36.9533 -18.6178 7.67029 
-36.9394 -18.6685 7.80373 
-36.9243 -18.7261 7.93422 
-36.9069 -18.798 8.05868 
-36.8846 -18.899 8.17083 
-36.8496 -19.0781 8.25006 
-36.815 -19.2544 8.33068 
-36.7769 -19.4514 8.4027 
-36.7366 -19.6625 8.46909 
-36.6951 -19.8804 8.5328 
-36.6519 -20.1089 8.59235 
-36.6053 -20.3577 8.64362 
-36.5556 -20.6255 8.6873 
-36.5051 -20.8984 8.72915 
-36.4545 -21.1713 8.77134 
-36.4032 -21.4489 8.81187 
-36.3505 -21.7342 8.84958 
-36.297 -22.025 8.88533 
-36.2436 -22.315 8.92177 
-36.1906 -22.6021 8.95975 
-36.1379 -22.8878 8.99865 
-36.0855 -23.1711 9.03887 
-36.0336 -23.4512 9.08075 
-35.9826 -23.726 9.12509 
-35.9309 -24.0053 9.16797 
-35.8773 -24.2961 9.20643 
-35.8222 -24.5955 9.24179 
-35.7673 -24.8936 9.27802 
-35.7142 -25.1806 9.31908 
-35.6628 -25.4577 9.3645 
-35.6123 -25.7292 9.41254 
-35.5599 -26.012 9.45631 
-35.5085 -26.2886 9.5029 
-35.4537 -26.5858 9.54156 
-35.3971 -26.8936 9.57631 
-35.3396 -27.2067 9.60928 
-35.275 -27.5631 9.62532 
-35.2252 -27.83 9.67756 
-35.1746 -28.1011 9.72839 
-35.1353 -28.3043 9.80654 
-41.1534 3.72413 2.5597 
-41.1727 3.87615 2.78192 
-41.1435 3.72797 2.85284 
-41.146 3.77664 3.02277 
-41.4002 4.07844 1.63365 
-41.3577 3.84642 1.66122 
-41.34 3.76948 1.76802 
-41.3324 3.85399 2.39411 
-41.3127 3.76423 2.49437 
-41.3006 3.72193 2.61862 
-41.2906 3.72573 2.91156 
-41.2881 3.74264 3.06546 
-41.2945 3.81565 3.24737 
-41.2875 3.80442 3.38694 
-41.2956 3.8878 3.57372 
-41.299 3.94141 3.74545 
-41.3031 3.99983 3.91943 
-41.3057 4.04859 4.08844 
-41.3031 4.06518 4.24133 
-41.299 4.07264 4.3896 
-41.2959 4.08556 4.54048 
-41.2932 4.10184 4.69294 
-41.29 4.11444 4.84349 
-41.2898 4.14528 5.00293 
-41.2975 4.22552 5.18654 
-41.3073 4.31891 5.37642 
-41.3119 4.37981 5.55016 
-41.3105 4.40375 5.70564 
-41.3064 4.41065 5.85268 
-41.3023 4.41755 5.99965 
-41.2988 4.42844 6.14847 
-41.294 4.43078 6.29305 
-41.2871 4.42037 6.43137 
-41.2818 4.4197 6.57435 
-41.2759 4.41517 6.71539 
-41.2675 4.39554 6.84908 
-41.2566 4.36065 6.97536 
-41.244 4.31452 7.09621 
-41.2313 4.26799 7.21687 
-41.2177 4.21598 7.3349 
-41.197 4.12033 7.43201 
-41.1713 3.99295 7.51402 
-41.1469 3.87444 7.60039 
-41.1266 3.78095 7.69881 
-41.1089 3.70349 7.80494 
-41.0871 3.60068 7.89906 
-41.0627 3.48193 7.9857 
-41.0351 3.34379 8.06326 
-41.0097 3.21877 8.14717 
-40.9851 3.09898 8.23367 
-40.9583 2.96551 8.31384 
-40.9303 2.82438 8.39052 
-40.904 2.69456 8.47268 
-40.8828 2.59561 8.56945 
-40.8617 2.49706 8.66649 
-40.836 2.37053 8.75052 
-40.8089 2.23597 8.83092 
-40.8118 2.28569 8.99741 
